ply
format ascii 1.0
comment PCL generated
element vertex 201
property float x
property float y
property float z
element camera 1
property float view_px
property float view_py
property float view_pz
property float x_axisx
property float x_axisy
property float x_axisz
property float y_axisx
property float y_axisy
property float y_axisz
property float z_axisx
property float z_axisy
property float z_axisz
property float focal
property float scalex
property float scaley
property float centerx
property float centery
property int viewportx
property int viewporty
property float k1
property float k2
end_header
0.0035383394 0.064869553 0.73543
0.0011794465 0.064869553 0.73543
0.0035470012 0.065028355 0.73723036
0.0035644525 0.065348297 0.74085754
0.0035688423 0.065428779 0.74176997
0.0035688423 0.065428779 0.74176997
0.0035688423 0.065428779 0.74176997
0.0059627569 0.063205227 0.7436015
0.010719729 0.063127294 0.7426846
0.017888272 0.065590329 0.7436015
0.039647885 0.06607981 0.74915075
0.049567752 0.068911262 0.75383878
0.059763089 0.069520324 0.7605015
0.072324917 0.072324917 0.76436192
0.082550719 0.072693922 0.76826173
0.095603384 0.070771337 0.77418661
0.10621884 0.076227643 0.7791943
0.14597394 0.079968333 0.7914812
0.15929529 0.080284826 0.79461372
0.17458764 0.077736102 0.79461372
0.19726592 0.077633686 0.79356676
0.20999275 0.080179051 0.79356676
0.23959015 0.082398728 0.79044253
0.25029606 0.07923945 0.78426719
0.26686239 0.08143688 0.78121555
0.2904132 0.07852374 0.77718347
0.29789165 0.076030925 0.77718347
0.30707049 0.078321621 0.77518302
0.31452969 0.080808021 0.77518302
0.32404238 0.085014924 0.76826173
0.33094433 0.089147367 0.76146293
0.3369934 0.093676865 0.75858587
0.33899963 0.10084935 0.75763172
0.34057292 0.1102923 0.75573051
0.33395875 0.13047133 0.74636579
0.33272186 0.13952851 0.7436015
0.3295792 0.14501485 0.7472918
0.31880483 0.16596955 0.74452066
0.31248367 0.17228188 0.74085754
0.3069759 0.17897052 0.73903948
0.29949701 0.18348631 0.73813385
0.28537211 0.19462617 0.74452066
0.27137923 0.20443106 0.74544209
0.2158789 0.22563615 0.7605015
0.20638226 0.22592141 0.76146293
0.19836815 0.22793856 0.76826173
0.18476127 0.22940157 0.77319282
0.17258273 0.23466285 0.77418661
0.15004103 0.23684163 0.77319282
0.14030106 0.23962925 0.77418661
0.13319385 0.23526765 0.77618194
0.11825623 0.23775725 0.77618194
0.1033186 0.24024686 0.77618194
0.093601421 0.23837161 0.77818757
0.083509378 0.23806404 0.77718347
0.06872984 0.24117926 0.7791943
0.051234972 0.24617779 0.7791943
0.023835542 0.24713692 0.78223014
0.0063052652 0.25347167 0.7863149
-0.0012660114 0.25953233 0.78940654
-0.011424047 0.26021442 0.7914812
-0.024180984 0.26090008 0.79356676
-0.057880826 0.27139676 0.80202025
-0.070743233 0.27654171 0.80202025
-0.088987581 0.27985948 0.80416179
-0.10690031 0.28206226 0.80308962
-0.13337073 0.28098494 0.8073957
-0.144116 0.2791436 0.80956614
-0.15170215 0.27617571 0.80847943
-0.16207494 0.2709893 0.80847943
-0.17668548 0.25922468 0.80416179
-0.18111874 0.25048336 0.80095375
-0.18675356 0.2434236 0.80308962
-0.19397444 0.21740758 0.81174827
-0.19371337 0.20671426 0.81065571
-0.19657812 0.19657812 0.81174827
-0.19710942 0.18405581 0.81394213
-0.19476189 0.17123359 0.81504357
-0.1952904 0.16121289 0.81725538
-0.19372046 0.15155002 0.82171512
-0.1910848 0.13837175 0.82171512
-0.19158562 0.10316148 0.8353914
-0.19319333 0.090517156 0.84240168
-0.19811197 0.075145923 0.85193378
-0.20285299 0.064857759 0.86045313
-0.20926967 0.051277999 0.86415666
-0.21889596 0.02965687 0.88058072
-0.21638784 0.012728697 0.88186997
-0.21262531 -0.0014081147 0.87801343
-0.20699285 -0.01830549 0.87801343
-0.1996145 -0.03210583 0.87040055
-0.19319333 -0.045866042 0.86664343
-0.18736422 -0.054127444 0.86539829
-0.18629357 -0.062097855 0.86045313
-0.18275045 -0.072825365 0.85678124
-0.17974664 -0.080954589 0.85556418
-0.17822765 -0.088433564 0.84833407
-0.17254257 -0.10189521 0.84714091
-0.1718176 -0.10958445 0.8435815
-0.16816968 -0.1170461 0.83888191
-0.167238 -0.12710087 0.83423436
-0.16211091 -0.13799524 0.8353914
-0.15588704 -0.14522809 0.83078235
-0.15035018 -0.15567231 0.829638
-0.13970593 -0.16099444 0.829638
-0.1102823 -0.17140262 0.82849681
-0.10245101 -0.17429976 0.829638
-0.094598114 -0.17720492 0.83078235
-0.065016985 -0.18178219 0.82735878
-0.038638666 -0.18519913 0.83078235
-0.028134951 -0.18622658 0.8353914
-0.017489647 -0.18700469 0.83888191
-0.0040586833 -0.19346391 0.8435815
0.0040758085 -0.19428021 0.84714091
0.01496568 -0.19455385 0.84833407
0.020494342 -0.19537939 0.85193378
0.028773475 -0.19593365 0.85435063
0.037205562 -0.19705169 0.85922569
0.042962648 -0.19818254 0.86415666
0.057232127 -0.19123906 0.87040055
0.060285293 -0.1864638 0.87419039
0.066374898 -0.17652899 0.88058072
0.072768539 -0.16408591 0.88968569
0.076071665 -0.15644927 0.89497352
0.079652421 -0.14047791 0.90302426
0.080254026 -0.13570227 0.9098447
0.08037544 -0.13006207 0.91122115
0.07840158 -0.10502853 0.92238468
0.081484914 -0.090374179 0.9237994
0.081610084 -0.078642443 0.9252184
0.08198791 -0.067081019 0.92950183
0.07900653 -0.06111826 0.92950183
0.078763433 -0.049041383 0.92664182
0.072263151 -0.030969923 0.91956824
0.069632567 -0.028149335 0.9237994
0.066669479 -0.019260071 0.9237994
0.063414603 -0.0044242749 0.91956824
0.063511565 0.0044310396 0.92097431
0.057253342 0.019084448 0.91537565
0.056993496 0.033611547 0.91122115
0.056993496 0.039457034 0.91122115
0.056993496 0.048225265 0.91122115
0.056565616 0.053664815 0.9043802
0.056227911 0.061994873 0.89898092
0.055894215 0.070226066 0.8936457
0.055894215 0.075958803 0.8936457
0.055401027 0.083811812 0.88576061
0.060460795 0.097018488 0.87673539
0.060023941 0.099109292 0.87040055
0.062275786 0.10379298 0.86291862
0.067233473 0.10839683 0.85556418
0.066665307 0.11292286 0.84833407
0.068708926 0.11451487 0.84005189
0.070615493 0.115916 0.83078235
0.07317929 0.11575633 0.829638
0.075321615 0.11760743 0.82396334
0.080059737 0.11680847 0.81836575
0.080603838 0.11642777 0.7977711
0.079446346 0.11475583 0.7863149
0.081121229 0.11356972 0.77818757
0.082867816 0.11007815 0.77121282
0.084583372 0.1091003 0.76436192
0.086268723 0.10570956 0.75763172
0.087924644 0.1047869 0.75101894
0.089551918 0.10388022 0.74452066
0.091375224 0.10324214 0.73994744
0.095535167 0.10497074 0.73543
0.10211312 0.10446055 0.73185563
0.10642006 0.10408115 0.72919756
0.11797174 0.1039553 0.72831583
0.12731604 0.1039553 0.72831583
0.13682579 0.10174225 0.72919756
0.14906168 0.10446055 0.73185563
0.16079882 0.10446055 0.73185563
0.17274587 0.10458763 0.73274601
0.18662053 0.10680798 0.73185563
0.20046152 0.10667836 0.73096746
0.20958549 0.10889079 0.73008144
0.22363591 0.10654905 0.73008144
0.23563021 0.10433377 0.73096746
0.26047227 0.10629138 0.72831583
0.27014321 0.10408115 0.72919756
0.27983761 0.10420731 0.73008144
0.28582346 0.10382975 0.72743624
0.29551339 0.10629138 0.72831583
0.30448949 0.106163 0.72743624
0.3130663 0.10590719 0.72568339
0.31501439 0.10810457 0.72481012
0.3243137 0.1104294 0.72481012
0.33361304 0.11507906 0.72481012
0.34099787 0.11987297 0.72568339
0.3433255 0.12685587 0.72568339
0.34373963 0.13633063 0.72655874
0.3433255 0.14547691 0.72568339
0.31619772 0.18879205 0.7222029
0.28967458 0.19965619 0.71961433
0.26826012 0.19918025 0.71789891
0.25935858 0.19711253 0.7187556
0.24954139 0.19434328 0.71704429
0.24005592 0.19411221 0.71619165
0.23288745 0.19158721 0.71534109
0 0 0 1 0 0 0 1 0 0 0 1 0 0 0 0 0 201 1 0 0
