ply
format ascii 1.0
comment PCL generated
element vertex 201
property float x
property float y
property float z
element camera 1
property float view_px
property float view_py
property float view_pz
property float x_axisx
property float x_axisy
property float x_axisz
property float y_axisx
property float y_axisy
property float y_axisz
property float z_axisx
property float z_axisy
property float z_axisz
property float focal
property float scalex
property float scaley
property float centerx
property float centery
property int viewportx
property int viewporty
property float k1
property float k2
end_header
-0.094431445 -0.32771954 0.31019503
-0.094766311 -0.3280544 0.31097636
-0.094431445 -0.32894737 0.31387851
-0.094654687 -0.32961708 0.31566444
-0.094766311 -0.32961708 0.31588769
-0.094319828 -0.33017519 0.31566444
-0.092422269 -0.33140302 0.31633419
-0.087399319 -0.33184952 0.31756201
-0.08181826 -0.33151466 0.31878984
-0.069986425 -0.33051005 0.3226966
-0.053689744 -0.33106816 0.32939383
-0.045318164 -0.3307333 0.33564463
-0.037393067 -0.33006358 0.34167218
-0.023775293 -0.32995194 0.35004374
-0.011608594 -0.33062169 0.35462022
-0.0016743164 -0.33039844 0.35953155
0.012166699 -0.32794276 0.36600557
0.051234081 -0.32704979 0.37951171
0.062619433 -0.32939383 0.38073954
0.071102634 -0.32950547 0.38107443
0.091752537 -0.32626846 0.38241386
0.10124033 -0.32682657 0.3819674
0.13081992 -0.32358956 0.37806064
0.14086582 -0.32336631 0.37593985
0.15705088 -0.32314306 0.37381905
0.17647295 -0.32559872 0.37214473
0.18417481 -0.32459414 0.37080526
0.19020234 -0.32191524 0.36980069
0.19701123 -0.31878984 0.36790311
0.20649903 -0.31198096 0.36332667
0.21341953 -0.3027164 0.36187559
0.21699141 -0.29613078 0.36176395
0.21866572 -0.28775918 0.36131749
0.21877734 -0.27905273 0.3614291
0.21554033 -0.25248691 0.36087099
0.21297304 -0.24489668 0.36421964
0.20973603 -0.23741807 0.36555907
0.20002501 -0.21464737 0.36678693
0.19433233 -0.20772685 0.36578232
0.19009072 -0.20426661 0.36567071
0.18462129 -0.19902042 0.36890772
0.17278945 -0.189421 0.37560499
0.15626954 -0.17870536 0.37772578
0.10514707 -0.1656457 0.39446893
0.095994137 -0.1656457 0.39770594
0.089520119 -0.16575733 0.4011662
0.072776951 -0.15995303 0.40395674
0.063177541 -0.15794384 0.40261728
0.040853322 -0.15515332 0.40138945
0.032035254 -0.15917169 0.40228242
0.02143125 -0.15772061 0.40272892
0.0081483396 -0.1555998 0.40228242
-0.0030137696 -0.15571143 0.40406835
-0.015626954 -0.1555998 0.40496132
-0.02656582 -0.15381387 0.40630078
-0.041076563 -0.14890254 0.407417
-0.056926757 -0.14544229 0.40864483
-0.08338096 -0.14008448 0.41355616
-0.092757128 -0.13405694 0.41656992
-0.10257979 -0.13048506 0.41757452
-0.11441162 -0.12903398 0.42069989
-0.12680157 -0.12802939 0.4233788
-0.15604629 -0.1121792 0.43253174
-0.16631544 -0.10704463 0.43275499
-0.18808155 -0.10079385 0.43275499
-0.20560606 -0.10291465 0.43152714
-0.22726054 -0.10436572 0.4324201
-0.23585537 -0.10615166 0.43208525
-0.24701749 -0.11229082 0.42929474
-0.25460771 -0.11731377 0.42616934
-0.26934171 -0.13673584 0.42014179
-0.27336004 -0.14566553 0.41779774
-0.27626219 -0.15906006 0.41634667
-0.28095031 -0.18584912 0.41444913
-0.2853035 -0.19768095 0.41199344
-0.28575 -0.2137544 0.41054237
-0.28474542 -0.22614433 0.4096494
-0.2830711 -0.24411534 0.40842158
-0.28195488 -0.25304502 0.40830997
-0.27882949 -0.26744413 0.40518457
-0.27849463 -0.28173164 0.40496132
-0.28206649 -0.3222501 0.40752861
-0.28686622 -0.33888164 0.41333291
-0.29278213 -0.35138321 0.41656992
-0.29713535 -0.36678693 0.41746289
-0.30260479 -0.38029307 0.42036504
-0.30874395 -0.40395674 0.42717391
-0.30785099 -0.42069989 0.42270908
-0.30204669 -0.42940634 0.4181326
-0.29267052 -0.44827032 0.40909129
-0.28619647 -0.46345079 0.39781758
-0.28195488 -0.47427803 0.39379922
-0.27704355 -0.48041719 0.39112031
-0.27536923 -0.49113283 0.38174415
-0.27347168 -0.49783009 0.37783739
-0.26945332 -0.50631326 0.37348419
-0.26588145 -0.51234084 0.36868447
-0.2625328 -0.52227509 0.36165234
-0.26398388 -0.53064668 0.35439697
-0.26041201 -0.53924149 0.35049024
-0.2544961 -0.54794794 0.34624863
-0.2513707 -0.55520332 0.33932811
-0.24467343 -0.56357491 0.33720732
-0.239204 -0.57083029 0.33464003
-0.23060918 -0.57596487 0.33486328
-0.20426661 -0.58388996 0.3365376
-0.19187666 -0.58601075 0.33664921
-0.18819316 -0.58601075 0.33519813
-0.15649277 -0.59293127 0.33586788
-0.13651259 -0.59549856 0.34223026
-0.12401103 -0.59806579 0.34535566
-0.1164208 -0.60197258 0.35026699
-0.10514707 -0.60465145 0.353504
-0.098449804 -0.60811174 0.35439697
-0.091640919 -0.60744202 0.3588618
-0.085166894 -0.60733038 0.36299181
-0.08126016 -0.60922796 0.36712179
-0.073223434 -0.61023253 0.37069365
-0.063735642 -0.61023253 0.37281445
-0.057708107 -0.60476309 0.38241386
-0.052015431 -0.59974015 0.38899952
-0.047215723 -0.59326613 0.39592001
-0.04275088 -0.58210403 0.40842158
-0.040295213 -0.5785321 0.41087726
-0.039402246 -0.56725842 0.42739716
-0.039067384 -0.56257033 0.42929474
-0.034937404 -0.55129659 0.43655011
-0.035941992 -0.52461916 0.45307001
-0.032704979 -0.51568943 0.45396298
-0.032146875 -0.50519705 0.45742324
-0.033486329 -0.4969371 0.46177647
-0.033821192 -0.48410067 0.46545997
-0.037951171 -0.47003642 0.46612969
-0.040741701 -0.46188807 0.46523672
-0.041076563 -0.45251191 0.46724591
-0.044983301 -0.44168466 0.46702266
-0.046769239 -0.43353632 0.47059453
-0.045987889 -0.42416015 0.46958995
-0.049559765 -0.40574268 0.46925509
-0.05101084 -0.39212489 0.4693667
-0.047438964 -0.38364169 0.46947831
-0.050341114 -0.37404227 0.46758077
-0.050341114 -0.36924258 0.46412051
-0.050899219 -0.36042452 0.46389726
-0.05101084 -0.35305753 0.45943242
-0.049671385 -0.34379297 0.45731163
-0.047327343 -0.33564463 0.4550792
-0.042639259 -0.32336631 0.44626114
-0.041188184 -0.31812012 0.44213116
-0.038509276 -0.31198096 0.43655011
-0.036053613 -0.30606505 0.42985284
-0.033374708 -0.30293965 0.42304394
-0.032593358 -0.3000375 0.41768613
-0.031142285 -0.29836318 0.41344452
-0.02656582 -0.29601914 0.41266319
-0.025449609 -0.29412159 0.40641239
-0.024779882 -0.29367509 0.39759433
-0.022659082 -0.29032648 0.37660956
-0.021766113 -0.28954512 0.368238
-0.019645313 -0.29200077 0.36008966
-0.018529102 -0.29278213 0.35573643
-0.016966406 -0.29289374 0.35026699
-0.015850196 -0.29278213 0.34290001
-0.014957227 -0.29244727 0.33698407
-0.012055079 -0.29166591 0.33184952
-0.0082599614 -0.2905497 0.32771954
-0.0037951171 -0.28976837 0.32504064
0.0015626954 -0.28965673 0.32325467
0.011050488 -0.29077294 0.32191524
0.021989355 -0.28976837 0.32280821
0.029021485 -0.28999159 0.32347792
0.039625488 -0.28965673 0.32604522
0.051792186 -0.28876376 0.32794276
0.065298341 -0.28831729 0.32961708
0.07757666 -0.28742433 0.32972872
0.087957419 -0.28619647 0.32961708
0.099119529 -0.28563839 0.33039844
0.11050488 -0.28708947 0.33028683
0.11965781 -0.28775918 0.33084491
0.13215938 -0.28731269 0.33051005
0.15191631 -0.28697783 0.33106816
0.16017626 -0.28753594 0.33129141
0.16787812 -0.28686622 0.33229598
0.17680781 -0.2853035 0.33184952
0.18439804 -0.28463379 0.33129141
0.19109531 -0.2830711 0.33140302
0.1952253 -0.28206649 0.33062169
0.19879717 -0.28128517 0.33051005
0.210629 -0.27503437 0.33263087
0.21866572 -0.26710927 0.33664921
0.22134463 -0.26119336 0.33832353
0.22413516 -0.24991962 0.34077919
0.22502813 -0.24054345 0.34167218
0.22402354 -0.23005107 0.34356973
0.19087207 -0.18796992 0.34903917
0.16810137 -0.18194239 0.34781134
0.14957227 -0.18819316 0.34602538
0.14142393 -0.19154179 0.34356973
0.13193613 -0.19288126 0.34200704
0.12657832 -0.19288126 0.34156054
0.1201043 -0.19377422 0.33999786
0 0 0 1 0 0 0 1 0 0 0 1 0 0 0 0 0 201 1 0 0
