ply
format ascii 1.0
comment PCL generated
element vertex 201
property float x
property float y
property float z
element camera 1
property float view_px
property float view_py
property float view_pz
property float x_axisx
property float x_axisy
property float x_axisz
property float y_axisx
property float y_axisy
property float y_axisz
property float z_axisx
property float z_axisy
property float z_axisz
property float focal
property float scalex
property float scaley
property float centerx
property float centery
property int viewportx
property int viewporty
property float k1
property float k2
end_header
0.0036778599 0.057625741 0.73507988
0.0033866763 0.05749774 0.73593634
0.0038760081 0.057367325 0.73894894
0.0037503466 0.057169288 0.74085498
0.0036496595 0.057225212 0.74107635
0.004093878 0.056630433 0.74097848
0.0060413852 0.055618227 0.7418384
0.011124462 0.055514157 0.74288177
0.016752146 0.056168109 0.74369991
0.028741058 0.058168799 0.74662006
0.045349438 0.0593777 0.75240338
0.054006882 0.061309472 0.75793374
0.062202159 0.063507318 0.76318669
0.076205149 0.065777197 0.77055579
0.088588208 0.066327959 0.77452791
0.098743364 0.067819327 0.77871239
0.11283929 0.071879223 0.78364581
0.15249422 0.076292634 0.79448462
0.16396239 0.074375376 0.79568207
0.17245254 0.074382409 0.79560196
0.19308746 0.077926964 0.79502988
0.20255041 0.077308416 0.79425597
0.2318497 0.07956101 0.78815925
0.24177632 0.079277903 0.78554207
0.25783411 0.079016924 0.78261232
0.27719 0.076288119 0.78062409
0.28480065 0.076949805 0.7786845
0.29072803 0.079310089 0.77673203
0.29738528 0.081879884 0.77376431
0.30652824 0.087347418 0.76714349
0.31321833 0.095970631 0.76305526
0.31667265 0.10232769 0.76110673
0.31818652 0.11032154 0.75848132
0.31816125 0.11877465 0.75639051
0.31446776 0.14432773 0.74932444
0.3119418 0.15250811 0.75077939
0.30865169 0.16007096 0.75035489
0.29864091 0.18237931 0.74630034
0.29279411 0.18880168 0.7438761
0.28849614 0.19210646 0.74311256
0.28310469 0.19798006 0.74519783
0.27145541 0.20891637 0.74985456
0.2548846 0.21976084 0.75004601
0.2044251 0.23643941 0.76553988
0.19544061 0.23722345 0.7691341
0.18914416 0.23796546 0.77283585
0.17246297 0.24422586 0.77492297
0.16277851 0.24579737 0.77361107
0.14037845 0.24810734 0.77285802
0.13168065 0.24441272 0.77518213
0.12108837 0.24589133 0.77578795
0.10776655 0.24778299 0.77549839
0.096707165 0.24808554 0.77782071
0.084151775 0.24837354 0.77929765
0.073262766 0.25040033 0.78069913
0.058744721 0.25538215 0.7812795
0.042918064 0.25898319 0.78240144
0.01664833 0.2653119 0.7871449
0.0073316917 0.27187112 0.78901654
-0.0024879053 0.27554557 0.78958774
-0.01417689 0.27769586 0.79284501
-0.026437558 0.27929947 0.79581165
-0.055460386 0.29684126 0.80215353
-0.065789185 0.30182898 0.80159873
-0.087628998 0.30779904 0.80113232
-0.1051554 0.30537394 0.80137199
-0.1267148 0.30411729 0.80370283
-0.13528547 0.30227375 0.80426657
-0.14646775 0.29558891 0.80368435
-0.1541172 0.28991249 0.80231553
-0.16880634 0.26954502 0.80213261
-0.17278698 0.2602984 0.80232108
-0.17553687 0.24696092 0.80444038
-0.17987323 0.22054353 0.80959296
-0.18414631 0.20845938 0.81042159
-0.18440002 0.19253856 0.81309062
-0.18323761 0.18032804 0.81529737
-0.18133146 0.16263509 0.81855214
-0.18007633 0.15397041 0.82063669
-0.176871 0.13926001 0.82108408
-0.17631412 0.12537998 0.82445002
-0.17909572 0.086808637 0.8373189
-0.183337 0.072163299 0.84736192
-0.18888456 0.060862243 0.85394031
-0.19293749 0.046166986 0.85890484
-0.19803897 0.033811003 0.86538994
-0.20345455 0.012609929 0.87824321
-0.20250532 -0.0047147572 0.87810016
-0.19678771 -0.014273405 0.87557495
-0.18755296 -0.03477475 0.87111151
-0.18138462 -0.052285701 0.86371052
-0.1771661 -0.063761264 0.86233842
-0.1722905 -0.070360094 0.86104584
-0.17089674 -0.083089143 0.8545984
-0.16908124 -0.090548754 0.85241318
-0.16514006 -0.099841446 0.85013843
-0.16170654 -0.10687241 0.84683633
-0.15854007 -0.11824769 0.84237212
-0.1602034 -0.12818459 0.83754295
-0.15668479 -0.13747424 0.83575052
-0.15083951 -0.14694801 0.83354318
-0.14793435 -0.15570387 0.82852352
-0.14121169 -0.16431558 0.82824165
-0.13575506 -0.17196426 0.82730967
-0.12707683 -0.17684534 0.82838118
-0.10055824 -0.18399647 0.8306545
-0.088144429 -0.18597579 0.83066583
-0.084535874 -0.1863288 0.82907599
-0.052731432 -0.19274208 0.82985264
-0.032427736 -0.19354856 0.83563089
-0.01974944 -0.19519889 0.83866155
-0.011867844 -0.19771227 0.84400564
-0.00040855259 -0.19944686 0.84723479
0.0063796565 -0.20254561 0.8486284
0.013384618 -0.20074624 0.85242802
0.020048071 -0.19957256 0.85606164
0.02418039 -0.20035228 0.86033201
0.03239575 -0.20039389 0.86362779
0.041973725 -0.19982448 0.86519438
0.048368264 -0.19208765 0.87278694
0.054289948 -0.18554473 0.87759644
0.059312329 -0.17751649 0.88240945
0.064193591 -0.16354448 0.89145231
0.066706479 -0.15945959 0.89280081
0.068213001 -0.14437833 0.90588081
0.068562634 -0.13936195 0.90651679
0.07285399 -0.12660718 0.91047859
0.072213948 -0.096627802 0.91977519
0.07534413 -0.087750196 0.9182241
0.075897522 -0.076722234 0.91889691
0.074635446 -0.067635864 0.92109156
0.074269563 -0.054286629 0.92143512
0.069947734 -0.040523618 0.91875005
0.066984631 -0.032874554 0.91597664
0.066594273 -0.023296088 0.91557372
0.062505074 -0.012889832 0.91282964
0.060761139 -0.0041102767 0.91431999
0.061339825 0.0047115386 0.91094768
0.05745573 0.022435278 0.90616679
0.055789612 0.035635054 0.90291846
0.059223741 0.043884605 0.90070766
0.056076899 0.0526838 0.89660364
0.055831231 0.056454748 0.89205062
0.055119094 0.064928934 0.88964212
0.054671463 0.070930094 0.88347733
0.055755377 0.07936424 0.87902594
0.05785539 0.086693734 0.87469673
0.06191054 0.09636575 0.86284345
0.06307438 0.10040498 0.85745686
0.065379716 0.10494637 0.85038048
0.067411773 0.10898927 0.84229296
0.069706939 0.11030461 0.83478916
0.070180833 0.11176336 0.82884049
0.071397588 0.11231819 0.82424569
0.075892039 0.11440557 0.82266718
0.076673582 0.11466806 0.81609154
0.076908775 0.11287695 0.80742306
0.077957489 0.11082849 0.78619158
0.078431755 0.10947488 0.77785891
0.080195896 0.10504983 0.77049482
0.081112921 0.10319909 0.76642776
0.082410946 0.10171628 0.76109052
0.083167672 0.09996897 0.75388598
0.083767965 0.098803103 0.74803901
0.086405307 0.098273695 0.74273229
0.089977562 0.098325074 0.73826665
0.094294302 0.098421037 0.73525357
0.09955696 0.098097593 0.73322678
0.10898585 0.096713603 0.73173046
0.11993723 0.097950369 0.73178357
0.12699622 0.097928733 0.73212898
0.13770509 0.098938882 0.7339859
0.1499331 0.10032563 0.73497546
0.16349532 0.10122883 0.73579353
0.17574847 0.10216522 0.73505145
0.18609025 0.1033625 0.73410583
0.19726647 0.10413989 0.7341522
0.2086553 0.1027486 0.73383021
0.2178342 0.10227436 0.73407227
0.23029602 0.10266685 0.7329998
0.25004873 0.10320283 0.73244905
0.2583178 0.10274887 0.73238492
0.26604727 0.10367817 0.732795
0.27491823 0.10510972 0.73151529
0.28246063 0.10564423 0.73042083
0.28912905 0.10720858 0.72979414
0.29319951 0.1079983 0.72857577
0.29674858 0.10873902 0.72808921
0.30856547 0.11536527 0.72796202
0.31665662 0.12407684 0.72944009
0.31931642 0.13023338 0.72943169
0.32203799 0.1417719 0.72882318
0.32281989 0.15107307 0.72727901
0.32173708 0.16170099 0.72652107
0.28820625 0.20368065 0.72289491
0.26530746 0.20912117 0.72134924
0.24681818 0.20255539 0.72214097
0.23861638 0.1986661 0.72102606
0.22908726 0.19694144 0.7203362
0.22371486 0.19680947 0.72017753
0.21718827 0.19552773 0.71922177
0 0 0 1 0 0 0 1 0 0 0 1 0 0 0 0 0 201 1 0 0
